5.67713 6.06534 3.96835
5.67713 6.06534 4.01013
5.67713 6.06534 4.03797
5.67713 6.06534 4.06582
5.67713 6.06534 4.09367
5.67713 6.06534 4.12152
5.67713 6.06534 4.14937
5.67713 6.06534 4.17722
5.67713 6.06534 4.20506
5.67713 6.06534 4.24684
5.67713 6.06534 4.27468
5.67713 6.06534 4.30253
5.67713 6.06534 4.33038
5.67713 6.06534 4.35823
5.67713 6.06534 4.38608
5.67713 6.06534 4.41392
5.70919 6.06792 3.82911
5.70919 6.06792 3.85696
5.70919 6.06792 3.88481
5.70919 6.06792 3.91266
5.70919 6.06792 3.94051
5.70919 6.06792 3.96835
5.70919 6.06792 4.01013
5.70919 6.06792 4.03797
5.70919 6.06792 4.06582
5.70919 6.06792 4.09367
5.70919 6.06792 4.12152
5.70919 6.06792 4.14937
5.70919 6.06792 4.17722
5.70919 6.06792 4.20506
5.70919 6.06792 4.24684
5.70919 6.06792 4.27468
5.70919 6.06792 4.30253
5.70919 6.06792 4.33038
5.70919 6.06792 4.35823
5.74121 6.07029 3.82911
5.74121 6.07029 3.85696
5.74121 6.07029 3.88481
5.74121 6.07029 3.91266
5.74121 6.07029 3.94051
5.74121 6.07029 3.96835
5.74121 6.07029 4.01013
5.74121 6.07029 4.03797
5.74121 6.07029 4.06582
5.74121 6.07029 4.09367
5.74121 6.07029 4.12152
5.74121 6.07029 4.14937
5.74121 6.07029 4.17722
5.74121 6.07029 4.20506
5.74121 6.07029 4.24684
5.74121 6.07029 4.27468
5.74121 6.07029 4.30253
5.74121 6.07029 3.82911
5.74121 6.07029 3.85696
5.74121 6.07029 3.88481
5.74121 6.07029 3.91266
5.74121 6.07029 3.94051
5.74121 6.07029 3.96835
5.74121 6.07029 4.01013
5.74121 6.07029 4.03797
5.74121 6.07029 4.06582
5.74121 6.07029 4.09367
5.74121 6.07029 4.12152
5.74121 6.07029 4.14937
5.74121 6.07029 4.17722
5.74121 6.07029 4.20506
5.74121 6.07029 4.24684
5.74121 6.07029 4.27468
5.74121 6.07029 4.30253
5.74121 6.07029 4.33038
5.7732 6.07253 3.80127
5.7732 6.07253 3.82911
5.7732 6.07253 3.85696
5.7732 6.07253 3.88481
5.7732 6.07253 3.91266
5.7732 6.07253 3.94051
5.7732 6.07253 3.96835
5.7732 6.07253 4.01013
5.7732 6.07253 4.03797
5.7732 6.07253 4.06582
5.7732 6.07253 4.09367
5.7732 6.07253 4.12152
5.7732 6.07253 4.14937
5.7732 6.07253 4.17722
5.7732 6.07253 4.20506
5.7732 6.07253 4.24684
5.7732 6.07253 4.27468
5.7732 6.07253 4.30253
5.7732 6.07253 4.33038
5.7732 6.07253 4.35823
5.80518 6.07469 3.82911
5.80518 6.07469 3.85696
5.80518 6.07469 3.88481
5.80518 6.07469 3.91266
5.80518 6.07469 3.94051
5.80518 6.07469 3.96835
5.80518 6.07469 4.01013
5.80518 6.07469 4.03797
5.80518 6.07469 4.06582
5.80518 6.07469 4.09367
5.80518 6.07469 4.12152
5.80518 6.07469 4.14937
5.80518 6.07469 4.17722
5.80518 6.07469 4.20506
5.80518 6.07469 4.24684
5.80518 6.07469 4.27468
5.80518 6.07469 4.30253
5.80518 6.07469 4.33038
5.80518 6.07469 4.35823
5.83716 6.07684 3.75949
5.83716 6.07684 3.80127
5.83716 6.07684 3.82911
5.83716 6.07684 3.85696
5.83716 6.07684 3.88481
5.83716 6.07684 3.91266
5.83716 6.07684 3.94051
5.83716 6.07684 3.96835
5.83716 6.07684 4.01013
5.83716 6.07684 4.03797
5.83716 6.07684 4.06582
5.83716 6.07684 4.09367
5.83716 6.07684 4.12152
5.83716 6.07684 4.14937
5.83716 6.07684 4.17722
5.83716 6.07684 4.20506
5.83716 6.07684 4.24684
5.83716 6.07684 4.30253
5.83716 6.07684 4.33038
5.83716 6.07684 4.35823
5.83716 6.07684 3.75949
5.83716 6.07684 3.80127
5.83716 6.07684 3.82911
5.83716 6.07684 3.85696
5.83716 6.07684 3.88481
5.83716 6.07684 3.91266
5.83716 6.07684 3.94051
5.83716 6.07684 3.96835
5.83716 6.07684 4.01013
5.83716 6.07684 4.03797
5.83716 6.07684 4.06582
5.83716 6.07684 4.09367
5.83716 6.07684 4.12152
5.83716 6.07684 4.14937
5.83716 6.07684 4.17722
5.83716 6.07684 4.20506
5.86916 6.079 3.75949
5.86916 6.079 3.80127
5.86916 6.079 3.82911
5.86916 6.079 3.85696
5.86916 6.079 3.88481
5.86916 6.079 3.91266
5.86916 6.079 3.94051
5.86916 6.079 3.96835
5.86916 6.079 4.01013
5.86916 6.079 4.03797
5.86916 6.079 4.06582
5.86916 6.079 4.09367
5.86916 6.079 4.12152
5.86916 6.079 4.14937
5.86916 6.079 4.17722
5.86916 6.079 4.20506
5.90119 6.08119 3.75949
5.90119 6.08119 3.80127
5.90119 6.08119 3.82911
5.90119 6.08119 3.85696
5.90119 6.08119 3.88481
5.90119 6.08119 3.91266
5.90119 6.08119 3.94051
5.90119 6.08119 3.96835
5.90119 6.08119 4.01013
5.90119 6.08119 4.03797
5.90119 6.08119 4.06582
5.90119 6.08119 4.09367
5.90119 6.08119 4.12152
5.90119 6.08119 4.14937
5.90119 6.08119 4.17722
5.90119 6.08119 3.75949
5.90119 6.08119 3.80127
5.90119 6.08119 3.82911
5.90119 6.08119 3.85696
5.90119 6.08119 3.88481
5.90119 6.08119 3.91266
5.90119 6.08119 3.94051
5.90119 6.08119 3.96835
5.90119 6.08119 4.01013
5.90119 6.08119 4.03797
5.90119 6.08119 4.06582
5.90119 6.08119 4.09367
5.90119 6.08119 4.12152
5.90119 6.08119 4.14937
5.90119 6.08119 4.17722
5.93328 6.08344 3.75949
5.93328 6.08344 3.80127
5.93328 6.08344 3.82911
5.93328 6.08344 3.85696
5.93328 6.08344 3.88481
5.93328 6.08344 3.91266
5.93328 6.08344 3.94051
5.93328 6.08344 3.96835
5.93328 6.08344 4.01013
5.93328 6.08344 4.03797
5.93328 6.08344 4.06582
5.93328 6.08344 4.09367
5.93328 6.08344 4.12152
5.93328 6.08344 4.14937
5.93328 6.08344 4.17722
5.96544 6.08573 3.80127
5.96544 6.08573 3.82911
5.96544 6.08573 3.85696
5.96544 6.08573 3.88481
5.96544 6.08573 3.91266
5.96544 6.08573 3.94051
5.96544 6.08573 3.96835
5.96544 6.08573 4.01013
5.96544 6.08573 4.03797
5.96544 6.08573 4.06582
5.96544 6.08573 4.09367
5.96544 6.08573 4.12152
5.96544 6.08573 3.80127
5.96544 6.08573 3.82911
5.96544 6.08573 3.85696
5.96544 6.08573 3.88481
5.96544 6.08573 3.91266
5.96544 6.08573 3.94051
5.96544 6.08573 3.96835
5.96544 6.08573 4.01013
5.96544 6.08573 4.03797
5.96544 6.08573 4.06582
5.96544 6.08573 4.09367
5.99766 6.08808 3.80127
5.99766 6.08808 3.82911
5.99766 6.08808 3.85696
5.99766 6.08808 3.88481
5.99766 6.08808 3.94051
5.99766 6.08808 3.96835
5.99766 6.08808 4.01013
5.99766 6.08808 4.03797
5.99766 6.08808 4.06582
6.02998 6.09047 3.82911
6.02998 6.09047 3.85696
6.02998 6.09047 3.94051
6.02998 6.09047 3.96835
6.02998 6.09047 4.01013
6.02998 6.09047 4.03797
6.02998 6.09047 3.94051
6.02998 6.09047 3.96835
6.02998 6.09047 4.01013
6.06241 6.0929 3.94051
6.06241 6.0929 3.96835
6.12761 6.0978 3.82911
4.7578 6.02219 4.12152
4.7578 6.02219 4.14937
4.7578 6.02219 4.27468
4.7578 6.02219 4.30253
4.7578 6.02219 4.33038
4.7578 6.02219 4.35823
4.7578 6.02219 4.17722
4.7578 6.02219 4.20506
4.7578 6.02219 4.24684
4.7578 6.02219 4.27468
4.7578 6.02219 4.30253
4.7578 6.02219 4.33038
4.7578 6.02219 4.35823
4.7578 6.02219 4.38608
4.78756 6.02483 4.14937
4.78756 6.02483 4.17722
4.78756 6.02483 4.20506
4.78756 6.02483 4.24684
4.78756 6.02483 4.27468
4.78756 6.02483 4.30253
4.78756 6.02483 4.33038
4.78756 6.02483 4.35823
4.78756 6.02483 4.38608
4.78756 6.02483 4.41392
4.81756 6.02737 4.14937
4.81756 6.02737 4.17722
4.81756 6.02737 4.20506
4.81756 6.02737 4.24684
4.81756 6.02737 4.27468
4.81756 6.02737 4.30253
4.81756 6.02737 4.33038
4.81756 6.02737 4.35823
4.81756 6.02737 4.38608
4.81756 6.02737 4.41392
4.81756 6.02737 4.09367
4.81756 6.02737 4.12152
4.81756 6.02737 4.14937
4.81756 6.02737 4.17722
4.81756 6.02737 4.20506
4.81756 6.02737 4.24684
4.81756 6.02737 4.27468
4.81756 6.02737 4.30253
4.81756 6.02737 4.33038
4.81756 6.02737 4.35823
4.81756 6.02737 4.38608
4.81756 6.02737 4.41392
4.84778 6.02984 4.09367
4.84778 6.02984 4.12152
4.84778 6.02984 4.14937
4.84778 6.02984 4.17722
4.84778 6.02984 4.20506
4.84778 6.02984 4.24684
4.84778 6.02984 4.27468
4.84778 6.02984 4.30253
4.84778 6.02984 4.33038
4.84778 6.02984 4.35823
4.84778 6.02984 4.38608
4.84778 6.02984 4.41392
4.87821 6.03226 4.09367
4.87821 6.03226 4.12152
4.87821 6.03226 4.14937
4.87821 6.03226 4.17722
4.87821 6.03226 4.20506
4.87821 6.03226 4.24684
4.87821 6.03226 4.27468
4.87821 6.03226 4.30253
4.87821 6.03226 4.33038
4.87821 6.03226 4.35823
4.87821 6.03226 4.38608
4.87821 6.03226 4.41392
4.87821 6.03226 4.4557
4.87821 6.03226 4.06582
4.87821 6.03226 4.09367
4.87821 6.03226 4.12152
4.87821 6.03226 4.14937
4.87821 6.03226 4.17722
4.87821 6.03226 4.20506
4.87821 6.03226 4.24684
4.87821 6.03226 4.27468
4.87821 6.03226 4.30253
4.87821 6.03226 4.33038
4.87821 6.03226 4.35823
4.87821 6.03226 4.38608
4.87821 6.03226 4.41392
4.87821 6.03226 4.4557
4.90882 6.03465 4.06582
4.90882 6.03465 4.09367
4.90882 6.03465 4.12152
4.90882 6.03465 4.14937
4.90882 6.03465 4.17722
4.90882 6.03465 4.20506
4.90882 6.03465 4.24684
4.90882 6.03465 4.27468
4.90882 6.03465 4.30253
4.90882 6.03465 4.33038
4.90882 6.03465 4.35823
4.90882 6.03465 4.38608
4.90882 6.03465 4.41392
4.90882 6.03465 4.4557
4.90882 6.03465 4.48354
4.93962 6.03701 4.01013
4.93962 6.03701 4.03797
4.93962 6.03701 4.06582
4.93962 6.03701 4.09367
4.93962 6.03701 4.12152
4.93962 6.03701 4.14937
4.93962 6.03701 4.17722
4.93962 6.03701 4.20506
4.93962 6.03701 4.24684
4.93962 6.03701 4.27468
4.93962 6.03701 4.30253
4.93962 6.03701 4.33038
4.93962 6.03701 4.35823
4.93962 6.03701 4.38608
4.93962 6.03701 4.41392
4.93962 6.03701 4.4557
4.93962 6.03701 4.48354
4.93962 6.03701 4.01013
4.93962 6.03701 4.03797
4.93962 6.03701 4.06582
4.93962 6.03701 4.09367
4.93962 6.03701 4.12152
4.93962 6.03701 4.14937
4.93962 6.03701 4.17722
4.93962 6.03701 4.20506
4.93962 6.03701 4.24684
4.93962 6.03701 4.27468
4.93962 6.03701 4.30253
4.93962 6.03701 4.33038
4.93962 6.03701 4.35823
4.93962 6.03701 4.38608
4.93962 6.03701 4.41392
4.93962 6.03701 4.4557
4.93962 6.03701 4.48354
4.93962 6.03701 4.51139
4.93962 6.03701 4.53924
4.97059 6.03937 3.96835
4.97059 6.03937 4.01013
4.97059 6.03937 4.03797
4.97059 6.03937 4.06582
4.97059 6.03937 4.09367
4.97059 6.03937 4.12152
4.97059 6.03937 4.14937
4.97059 6.03937 4.17722
4.97059 6.03937 4.20506
4.97059 6.03937 4.24684
4.97059 6.03937 4.27468
4.97059 6.03937 4.30253
4.97059 6.03937 4.33038
4.97059 6.03937 4.35823
4.97059 6.03937 4.38608
4.97059 6.03937 4.41392
4.97059 6.03937 4.4557
4.97059 6.03937 4.48354
4.97059 6.03937 4.51139
4.97059 6.03937 4.53924
4.97059 6.03937 4.56709
5.00173 6.04172 3.96835
5.00173 6.04172 4.01013
5.00173 6.04172 4.03797
5.00173 6.04172 4.06582
5.00173 6.04172 4.09367
5.00173 6.04172 4.12152
5.00173 6.04172 4.14937
5.00173 6.04172 4.17722
5.00173 6.04172 4.20506
5.00173 6.04172 4.24684
5.00173 6.04172 4.27468
5.00173 6.04172 4.30253
5.00173 6.04172 4.33038
5.00173 6.04172 4.35823
5.00173 6.04172 4.38608
5.00173 6.04172 4.41392
5.00173 6.04172 4.4557
5.00173 6.04172 4.48354
5.00173 6.04172 4.51139
5.00173 6.04172 4.53924
5.00173 6.04172 4.56709
5.00173 6.04172 4.59494
5.00173 6.04172 4.62279
5.00173 6.04172 4.65063
5.00173 6.04172 4.69241
5.033 6.04408 3.94051
5.033 6.04408 3.96835
5.033 6.04408 4.01013
5.033 6.04408 4.03797
5.033 6.04408 4.06582
5.033 6.04408 4.09367
5.033 6.04408 4.12152
5.033 6.04408 4.14937
5.033 6.04408 4.17722
5.033 6.04408 4.20506
5.033 6.04408 4.24684
5.033 6.04408 4.27468
5.033 6.04408 4.30253
5.033 6.04408 4.33038
5.033 6.04408 4.35823
5.033 6.04408 4.38608
5.033 6.04408 4.41392
5.033 6.04408 4.4557
5.033 6.04408 4.48354
5.033 6.04408 4.51139
5.033 6.04408 4.53924
5.033 6.04408 4.56709
5.033 6.04408 4.59494
5.033 6.04408 4.62279
5.033 6.04408 4.69241
5.033 6.04408 3.94051
5.033 6.04408 3.96835
5.033 6.04408 4.01013
5.033 6.04408 4.03797
5.033 6.04408 4.06582
5.033 6.04408 4.09367
5.033 6.04408 4.12152
5.033 6.04408 4.14937
5.033 6.04408 4.17722
5.033 6.04408 4.20506
5.033 6.04408 4.24684
5.033 6.04408 4.27468
5.033 6.04408 4.30253
5.033 6.04408 4.33038
5.033 6.04408 4.35823
5.033 6.04408 4.38608
5.033 6.04408 4.41392
5.033 6.04408 4.4557
5.033 6.04408 4.48354
5.033 6.04408 4.51139
5.033 6.04408 4.53924
5.033 6.04408 4.56709
5.033 6.04408 4.59494
5.033 6.04408 4.62279
5.033 6.04408 4.65063
5.033 6.04408 4.69241
5.06441 6.04645 3.94051
5.06441 6.04645 3.96835
5.06441 6.04645 4.01013
5.06441 6.04645 4.03797
5.06441 6.04645 4.06582
5.06441 6.04645 4.09367
5.06441 6.04645 4.12152
5.06441 6.04645 4.14937
5.06441 6.04645 4.17722
5.06441 6.04645 4.20506
5.06441 6.04645 4.24684
5.06441 6.04645 4.27468
5.06441 6.04645 4.30253
5.06441 6.04645 4.33038
5.06441 6.04645 4.35823
5.06441 6.04645 4.38608
5.06441 6.04645 4.41392
5.06441 6.04645 4.4557
5.06441 6.04645 4.48354
5.06441 6.04645 4.51139
5.06441 6.04645 4.53924
5.06441 6.04645 4.56709
5.06441 6.04645 4.59494
5.06441 6.04645 4.62279
5.09597 6.04885 3.91266
5.09597 6.04885 3.94051
5.09597 6.04885 3.96835
5.09597 6.04885 4.01013
5.09597 6.04885 4.03797
5.09597 6.04885 4.06582
5.09597 6.04885 4.09367
5.09597 6.04885 4.12152
5.09597 6.04885 4.14937
5.09597 6.04885 4.17722
5.09597 6.04885 4.20506
5.09597 6.04885 4.24684
5.09597 6.04885 4.27468
5.09597 6.04885 4.30253
5.09597 6.04885 4.33038
5.09597 6.04885 4.35823
5.09597 6.04885 4.38608
5.09597 6.04885 4.41392
5.09597 6.04885 4.4557
5.09597 6.04885 4.48354
5.09597 6.04885 4.51139
5.09597 6.04885 4.53924
5.09597 6.04885 4.56709
5.09597 6.04885 4.59494
5.09597 6.04885 4.62279
5.09597 6.04885 4.72025
5.09597 6.04885 3.88481
5.09597 6.04885 3.91266
5.09597 6.04885 3.94051
5.09597 6.04885 3.96835
5.09597 6.04885 4.01013
5.09597 6.04885 4.03797
5.09597 6.04885 4.06582
5.09597 6.04885 4.09367
5.09597 6.04885 4.12152
5.09597 6.04885 4.14937
5.09597 6.04885 4.17722
5.09597 6.04885 4.20506
5.09597 6.04885 4.24684
5.09597 6.04885 4.27468
5.09597 6.04885 4.30253
5.09597 6.04885 4.33038
5.09597 6.04885 4.35823
5.09597 6.04885 4.38608
5.09597 6.04885 4.41392
5.09597 6.04885 4.4557
5.09597 6.04885 4.48354
5.09597 6.04885 4.51139
5.09597 6.04885 4.53924
5.09597 6.04885 4.56709
5.09597 6.04885 4.59494
5.09597 6.04885 4.62279
5.09597 6.04885 4.69241
5.09597 6.04885 4.7481
5.12762 6.05126 3.91266
5.12762 6.05126 3.94051
5.12762 6.05126 3.96835
5.12762 6.05126 4.01013
5.12762 6.05126 4.03797
5.12762 6.05126 4.06582
5.12762 6.05126 4.09367
5.12762 6.05126 4.12152
5.12762 6.05126 4.14937
5.12762 6.05126 4.17722
5.12762 6.05126 4.20506
5.12762 6.05126 4.24684
5.12762 6.05126 4.27468
5.12762 6.05126 4.30253
5.12762 6.05126 4.33038
5.12762 6.05126 4.35823
5.12762 6.05126 4.38608
5.12762 6.05126 4.41392
5.12762 6.05126 4.4557
5.12762 6.05126 4.48354
5.12762 6.05126 4.51139
5.12762 6.05126 4.53924
5.12762 6.05126 4.56709
5.12762 6.05126 4.59494
5.12762 6.05126 4.62279
5.12762 6.05126 4.65063
5.12762 6.05126 4.69241
5.12762 6.05126 4.72025
5.12762 6.05126 4.7481
5.12762 6.05126 4.77595
5.12762 6.05126 4.8038
5.1594 6.05371 3.91266
5.1594 6.05371 3.94051
5.1594 6.05371 3.96835
5.1594 6.05371 4.01013
5.1594 6.05371 4.03797
5.1594 6.05371 4.06582
5.1594 6.05371 4.09367
5.1594 6.05371 4.12152
5.1594 6.05371 4.14937
5.1594 6.05371 4.17722
5.1594 6.05371 4.20506
5.1594 6.05371 4.24684
5.1594 6.05371 4.27468
5.1594 6.05371 4.30253
5.1594 6.05371 4.33038
5.1594 6.05371 4.35823
5.1594 6.05371 4.38608
5.1594 6.05371 4.41392
5.1594 6.05371 4.4557
5.1594 6.05371 4.48354
5.1594 6.05371 4.51139
5.1594 6.05371 4.53924
5.1594 6.05371 4.56709
5.1594 6.05371 4.59494
5.1594 6.05371 4.62279
5.1594 6.05371 4.65063
5.1594 6.05371 4.69241
5.1594 6.05371 4.72025
5.1594 6.05371 4.7481
5.1594 6.05371 4.77595
5.1594 6.05371 4.8038
5.1594 6.05371 3.91266
5.1594 6.05371 3.94051
5.1594 6.05371 3.96835
5.1594 6.05371 4.01013
5.1594 6.05371 4.03797
5.1594 6.05371 4.06582
5.1594 6.05371 4.09367
5.1594 6.05371 4.12152
5.1594 6.05371 4.14937
5.1594 6.05371 4.17722
5.1594 6.05371 4.20506
5.1594 6.05371 4.24684
5.1594 6.05371 4.27468
5.1594 6.05371 4.30253
5.1594 6.05371 4.33038
5.1594 6.05371 4.35823
5.1594 6.05371 4.38608
5.1594 6.05371 4.41392
5.1594 6.05371 4.4557
5.1594 6.05371 4.48354
5.1594 6.05371 4.51139
5.1594 6.05371 4.53924
5.1594 6.05371 4.56709
5.1594 6.05371 4.59494
5.1594 6.05371 4.62279
5.1594 6.05371 4.65063
5.1594 6.05371 4.69241
5.1594 6.05371 4.72025
5.1594 6.05371 4.7481
5.1594 6.05371 4.77595
5.1594 6.05371 4.8038
5.1594 6.05371 4.83165
5.19125 6.0562 3.88481
5.19125 6.0562 3.91266
5.19125 6.0562 3.94051
5.19125 6.0562 3.96835
5.19125 6.0562 4.01013
5.19125 6.0562 4.03797
5.19125 6.0562 4.06582
5.19125 6.0562 4.09367
5.19125 6.0562 4.12152
5.19125 6.0562 4.14937
5.19125 6.0562 4.17722
5.19125 6.0562 4.20506
5.19125 6.0562 4.24684
5.19125 6.0562 4.27468
5.19125 6.0562 4.30253
5.19125 6.0562 4.33038
5.19125 6.0562 4.35823
5.19125 6.0562 4.38608
5.19125 6.0562 4.41392
5.19125 6.0562 4.4557
5.19125 6.0562 4.48354
5.19125 6.0562 4.51139
5.19125 6.0562 4.53924
5.19125 6.0562 4.56709
5.19125 6.0562 4.59494
5.19125 6.0562 4.62279
5.19125 6.0562 4.65063
5.19125 6.0562 4.69241
5.19125 6.0562 4.72025
5.19125 6.0562 4.7481
5.19125 6.0562 4.77595
5.19125 6.0562 4.8038
5.22319 6.05872 3.88481
5.22319 6.05872 3.91266
5.22319 6.05872 3.94051
5.22319 6.05872 3.96835
5.22319 6.05872 4.01013
5.22319 6.05872 4.03797
5.22319 6.05872 4.06582
5.22319 6.05872 4.09367
5.22319 6.05872 4.12152
5.22319 6.05872 4.14937
5.22319 6.05872 4.17722
5.22319 6.05872 4.20506
5.22319 6.05872 4.24684
5.22319 6.05872 4.27468
5.22319 6.05872 4.30253
5.22319 6.05872 4.33038
5.22319 6.05872 4.35823
5.22319 6.05872 4.38608
5.22319 6.05872 4.41392
5.22319 6.05872 4.4557
5.22319 6.05872 4.48354
5.22319 6.05872 4.51139
5.22319 6.05872 4.53924
5.22319 6.05872 4.56709
5.22319 6.05872 4.59494
5.22319 6.05872 4.62279
5.22319 6.05872 4.65063
5.22319 6.05872 4.69241
5.22319 6.05872 4.72025
5.22319 6.05872 4.7481
5.22319 6.05872 4.77595
5.22319 6.05872 4.8038
5.22319 6.05872 4.83165
5.22319 6.05872 3.85696
5.22319 6.05872 3.88481
5.22319 6.05872 3.91266
5.22319 6.05872 3.94051
5.22319 6.05872 3.96835
5.22319 6.05872 4.01013
5.22319 6.05872 4.03797
5.22319 6.05872 4.06582
5.22319 6.05872 4.09367
5.22319 6.05872 4.12152
5.22319 6.05872 4.14937
5.22319 6.05872 4.17722
5.22319 6.05872 4.20506
5.22319 6.05872 4.24684
5.22319 6.05872 4.27468
5.22319 6.05872 4.30253
5.22319 6.05872 4.33038
5.22319 6.05872 4.35823
5.22319 6.05872 4.38608
5.22319 6.05872 4.41392
5.22319 6.05872 4.4557
5.22319 6.05872 4.48354
5.22319 6.05872 4.51139
5.22319 6.05872 4.53924
5.22319 6.05872 4.56709
5.22319 6.05872 4.59494
5.22319 6.05872 4.62279
5.22319 6.05872 4.65063
5.22319 6.05872 4.69241
5.22319 6.05872 4.72025
5.22319 6.05872 4.7481
5.22319 6.05872 4.77595
5.22319 6.05872 4.8038
5.22319 6.05872 4.83165
5.25521 6.06129 3.82911
5.25521 6.06129 3.85696
5.25521 6.06129 3.88481
5.25521 6.06129 3.91266
5.25521 6.06129 3.94051
5.25521 6.06129 3.96835
5.25521 6.06129 4.01013
5.25521 6.06129 4.03797
5.25521 6.06129 4.06582
5.25521 6.06129 4.09367
5.25521 6.06129 4.12152
5.25521 6.06129 4.14937
5.25521 6.06129 4.17722
5.25521 6.06129 4.20506
5.25521 6.06129 4.24684
5.25521 6.06129 4.27468
5.25521 6.06129 4.30253
5.25521 6.06129 4.33038
5.25521 6.06129 4.35823
5.25521 6.06129 4.38608
5.25521 6.06129 4.41392
5.25521 6.06129 4.4557
5.25521 6.06129 4.48354
5.25521 6.06129 4.51139
5.25521 6.06129 4.53924
5.25521 6.06129 4.56709
5.25521 6.06129 4.59494
5.25521 6.06129 4.62279
5.25521 6.06129 4.65063
5.25521 6.06129 4.69241
5.25521 6.06129 4.72025
5.25521 6.06129 4.7481
5.25521 6.06129 4.77595
5.25521 6.06129 4.8038
5.25521 6.06129 4.83165
5.25521 6.06129 4.85949
5.28729 6.0639 3.82911
5.28729 6.0639 3.85696
5.28729 6.0639 3.88481
5.28729 6.0639 3.91266
5.28729 6.0639 3.94051
5.28729 6.0639 3.96835
5.28729 6.0639 4.01013
5.28729 6.0639 4.03797
5.28729 6.0639 4.06582
5.28729 6.0639 4.09367
5.28729 6.0639 4.12152
5.28729 6.0639 4.14937
5.28729 6.0639 4.17722
5.28729 6.0639 4.20506
5.28729 6.0639 4.24684
5.28729 6.0639 4.27468
5.28729 6.0639 4.30253
5.28729 6.0639 4.33038
5.28729 6.0639 4.35823
5.28729 6.0639 4.38608
5.28729 6.0639 4.41392
5.28729 6.0639 4.4557
5.28729 6.0639 4.48354
5.28729 6.0639 4.51139
5.28729 6.0639 4.53924
5.28729 6.0639 4.56709
5.28729 6.0639 4.59494
5.28729 6.0639 4.62279
5.28729 6.0639 4.65063
5.28729 6.0639 4.69241
5.28729 6.0639 4.72025
5.28729 6.0639 4.7481
5.28729 6.0639 4.77595
5.28729 6.0639 4.8038
5.28729 6.0639 4.83165
5.31942 6.06657 3.82911
5.31942 6.06657 3.85696
5.31942 6.06657 3.88481
5.31942 6.06657 3.91266
5.31942 6.06657 3.94051
5.31942 6.06657 3.96835
5.31942 6.06657 4.01013
5.31942 6.06657 4.03797
5.31942 6.06657 4.06582
5.31942 6.06657 4.09367
5.31942 6.06657 4.12152
5.31942 6.06657 4.14937
5.31942 6.06657 4.17722
5.31942 6.06657 4.20506
5.31942 6.06657 4.24684
5.31942 6.06657 4.27468
5.31942 6.06657 4.30253
5.31942 6.06657 4.33038
5.31942 6.06657 4.35823
5.31942 6.06657 4.38608
5.31942 6.06657 4.41392
5.31942 6.06657 4.4557
5.31942 6.06657 4.48354
5.31942 6.06657 4.51139
5.31942 6.06657 4.53924
5.31942 6.06657 4.56709
5.31942 6.06657 4.59494
5.31942 6.06657 4.62279
5.31942 6.06657 4.65063
5.31942 6.06657 4.69241
5.31942 6.06657 4.72025
5.31942 6.06657 4.7481
5.31942 6.06657 4.77595
5.31942 6.06657 4.8038
5.31942 6.06657 4.83165
5.31942 6.06657 3.80127
5.31942 6.06657 3.82911
5.31942 6.06657 3.85696
5.31942 6.06657 3.88481
5.31942 6.06657 3.91266
5.31942 6.06657 3.94051
5.31942 6.06657 3.96835
5.31942 6.06657 4.01013
5.31942 6.06657 4.03797
5.31942 6.06657 4.06582
5.31942 6.06657 4.09367
5.31942 6.06657 4.12152
5.31942 6.06657 4.14937
5.31942 6.06657 4.17722
5.31942 6.06657 4.20506
5.31942 6.06657 4.24684
5.31942 6.06657 4.27468
5.31942 6.06657 4.30253
5.31942 6.06657 4.33038
5.31942 6.06657 4.35823
5.31942 6.06657 4.38608
5.31942 6.06657 4.41392
5.31942 6.06657 4.4557
5.31942 6.06657 4.48354
5.31942 6.06657 4.51139
5.31942 6.06657 4.53924
5.31942 6.06657 4.56709
5.31942 6.06657 4.59494
5.31942 6.06657 4.62279
5.31942 6.06657 4.65063
5.31942 6.06657 4.69241
5.31942 6.06657 4.72025
5.31942 6.06657 4.7481
5.31942 6.06657 4.77595
5.31942 6.06657 4.8038
5.35159 6.06928 3.80127
5.35159 6.06928 3.82911
5.35159 6.06928 3.85696
5.35159 6.06928 3.88481
5.35159 6.06928 3.91266
5.35159 6.06928 3.94051
5.35159 6.06928 3.96835
5.35159 6.06928 4.01013
5.35159 6.06928 4.03797
5.35159 6.06928 4.06582
5.35159 6.06928 4.09367
5.35159 6.06928 4.12152
5.35159 6.06928 4.14937
5.35159 6.06928 4.17722
5.35159 6.06928 4.20506
5.35159 6.06928 4.24684
5.35159 6.06928 4.27468
5.35159 6.06928 4.30253
5.35159 6.06928 4.33038
5.35159 6.06928 4.35823
5.35159 6.06928 4.38608
5.35159 6.06928 4.41392
5.35159 6.06928 4.4557
5.35159 6.06928 4.48354
5.35159 6.06928 4.51139
5.35159 6.06928 4.53924
5.35159 6.06928 4.56709
5.35159 6.06928 4.59494
5.35159 6.06928 4.62279
5.35159 6.06928 4.65063
5.35159 6.06928 4.69241
5.35159 6.06928 4.72025
5.35159 6.06928 4.7481
5.35159 6.06928 4.77595
5.38379 6.07205 3.73165
5.38379 6.07205 3.75949
5.38379 6.07205 3.80127
5.38379 6.07205 3.82911
5.38379 6.07205 3.85696
5.38379 6.07205 3.88481
5.38379 6.07205 3.91266
5.38379 6.07205 3.94051
5.38379 6.07205 3.96835
5.38379 6.07205 4.01013
5.38379 6.07205 4.03797
5.38379 6.07205 4.06582
5.38379 6.07205 4.09367
5.38379 6.07205 4.12152
5.38379 6.07205 4.14937
5.38379 6.07205 4.17722
5.38379 6.07205 4.20506
5.38379 6.07205 4.24684
5.38379 6.07205 4.27468
5.38379 6.07205 4.30253
5.38379 6.07205 4.33038
5.38379 6.07205 4.35823
5.38379 6.07205 4.38608
5.38379 6.07205 4.41392
5.38379 6.07205 4.4557
5.38379 6.07205 4.48354
5.38379 6.07205 4.51139
5.38379 6.07205 4.53924
5.38379 6.07205 4.56709
5.38379 6.07205 4.59494
5.38379 6.07205 4.62279
5.38379 6.07205 4.65063
5.38379 6.07205 4.69241
5.38379 6.07205 4.72025
5.38379 6.07205 4.7481
5.38379 6.07205 4.77595
5.38379 6.07205 3.7038
5.38379 6.07205 3.73165
5.38379 6.07205 3.75949
5.38379 6.07205 3.80127
5.38379 6.07205 3.82911
5.38379 6.07205 3.85696
5.38379 6.07205 3.88481
5.38379 6.07205 3.91266
5.38379 6.07205 3.94051
5.38379 6.07205 3.96835
5.38379 6.07205 4.01013
5.38379 6.07205 4.03797
5.38379 6.07205 4.06582
5.38379 6.07205 4.09367
5.38379 6.07205 4.12152
5.38379 6.07205 4.14937
5.38379 6.07205 4.17722
5.38379 6.07205 4.20506
5.38379 6.07205 4.24684
5.38379 6.07205 4.27468
5.38379 6.07205 4.30253
5.38379 6.07205 4.33038
5.38379 6.07205 4.35823
5.38379 6.07205 4.38608
5.38379 6.07205 4.41392
5.38379 6.07205 4.4557
5.38379 6.07205 4.48354
5.38379 6.07205 4.51139
5.38379 6.07205 4.53924
5.38379 6.07205 4.56709
5.38379 6.07205 4.59494
5.38379 6.07205 4.62279
5.38379 6.07205 4.65063
5.38379 6.07205 4.69241
5.38379 6.07205 4.72025
5.38379 6.07205 4.7481
5.38379 6.07205 4.77595
5.38379 6.07205 4.8038
5.38379 6.07205 4.85949
5.38379 6.07205 4.90127
5.41602 6.07487 3.73165
5.41602 6.07487 3.75949
5.41602 6.07487 3.80127
5.41602 6.07487 3.82911
5.41602 6.07487 3.85696
5.41602 6.07487 3.88481
5.41602 6.07487 3.91266
5.41602 6.07487 3.94051
5.41602 6.07487 3.96835
5.41602 6.07487 4.01013
5.41602 6.07487 4.03797
5.41602 6.07487 4.06582
5.41602 6.07487 4.09367
5.41602 6.07487 4.12152
5.41602 6.07487 4.14937
5.41602 6.07487 4.17722
5.41602 6.07487 4.20506
5.41602 6.07487 4.24684
5.41602 6.07487 4.27468
5.41602 6.07487 4.30253
5.41602 6.07487 4.33038
5.41602 6.07487 4.35823
5.41602 6.07487 4.38608
5.41602 6.07487 4.41392
5.41602 6.07487 4.4557
5.41602 6.07487 4.48354
5.41602 6.07487 4.51139
5.41602 6.07487 4.53924
5.41602 6.07487 4.56709
5.41602 6.07487 4.59494
5.41602 6.07487 4.62279
5.41602 6.07487 4.65063
5.41602 6.07487 4.69241
5.41602 6.07487 4.72025
5.41602 6.07487 4.7481
5.41602 6.07487 4.77595
5.41602 6.07487 4.8038
5.41602 6.07487 4.83165
5.44827 6.07774 3.75949
5.44827 6.07774 3.80127
5.44827 6.07774 3.82911
5.44827 6.07774 3.85696
5.44827 6.07774 3.88481
5.44827 6.07774 3.91266
5.44827 6.07774 3.94051
5.44827 6.07774 3.96835
5.44827 6.07774 4.01013
5.44827 6.07774 4.03797
5.44827 6.07774 4.06582
5.44827 6.07774 4.09367
5.44827 6.07774 4.12152
5.44827 6.07774 4.14937
5.44827 6.07774 4.17722
5.44827 6.07774 4.20506
5.44827 6.07774 4.24684
5.44827 6.07774 4.27468
5.44827 6.07774 4.30253
5.44827 6.07774 4.33038
5.44827 6.07774 4.35823
5.44827 6.07774 4.38608
5.44827 6.07774 4.41392
5.44827 6.07774 4.4557
5.44827 6.07774 4.48354
5.44827 6.07774 4.51139
5.44827 6.07774 4.53924
5.44827 6.07774 4.56709
5.44827 6.07774 4.59494
5.44827 6.07774 4.62279
5.44827 6.07774 4.65063
5.44827 6.07774 4.69241
5.44827 6.07774 4.72025
5.44827 6.07774 4.7481
5.44827 6.07774 4.77595
5.44827 6.07774 4.8038
5.44827 6.07774 4.83165
5.44827 6.07774 3.75949
5.44827 6.07774 3.80127
5.44827 6.07774 3.82911
5.44827 6.07774 3.85696
5.44827 6.07774 3.88481
5.44827 6.07774 3.91266
5.44827 6.07774 3.94051
5.44827 6.07774 3.96835
5.44827 6.07774 4.01013
5.44827 6.07774 4.03797
5.44827 6.07774 4.06582
5.44827 6.07774 4.09367
5.44827 6.07774 4.12152
5.44827 6.07774 4.14937
5.44827 6.07774 4.17722
5.44827 6.07774 4.20506
5.44827 6.07774 4.24684
5.44827 6.07774 4.27468
5.44827 6.07774 4.30253
5.44827 6.07774 4.33038
5.44827 6.07774 4.35823
5.44827 6.07774 4.38608
5.44827 6.07774 4.41392
5.44827 6.07774 4.4557
5.44827 6.07774 4.48354
5.44827 6.07774 4.51139
5.44827 6.07774 4.53924
5.44827 6.07774 4.56709
5.44827 6.07774 4.59494
5.44827 6.07774 4.62279
5.44827 6.07774 4.65063
5.44827 6.07774 4.69241
5.44827 6.07774 4.72025
5.44827 6.07774 4.7481
5.44827 6.07774 4.77595
5.48051 6.08066 3.75949
5.48051 6.08066 3.80127
5.48051 6.08066 3.82911
5.48051 6.08066 3.85696
5.48051 6.08066 3.88481
5.48051 6.08066 3.91266
5.48051 6.08066 3.94051
5.48051 6.08066 3.96835
5.48051 6.08066 4.01013
5.48051 6.08066 4.03797
5.48051 6.08066 4.06582
5.48051 6.08066 4.09367
5.48051 6.08066 4.12152
5.48051 6.08066 4.14937
5.48051 6.08066 4.17722
5.48051 6.08066 4.20506
5.48051 6.08066 4.24684
5.48051 6.08066 4.27468
5.48051 6.08066 4.30253
5.48051 6.08066 4.33038
5.48051 6.08066 4.35823
5.48051 6.08066 4.38608
5.48051 6.08066 4.41392
5.48051 6.08066 4.4557
5.48051 6.08066 4.48354
5.48051 6.08066 4.51139
5.48051 6.08066 4.53924
5.48051 6.08066 4.56709
5.48051 6.08066 4.59494
5.48051 6.08066 4.62279
5.48051 6.08066 4.65063
5.48051 6.08066 4.69241
5.48051 6.08066 4.72025
5.48051 6.08066 4.7481
5.48051 6.08066 4.77595
5.51275 6.08361 3.73165
5.51275 6.08361 3.75949
5.51275 6.08361 3.80127
5.51275 6.08361 3.82911
5.51275 6.08361 3.85696
5.51275 6.08361 3.88481
5.51275 6.08361 3.91266
5.51275 6.08361 3.94051
5.51275 6.08361 3.96835
5.51275 6.08361 4.01013
5.51275 6.08361 4.03797
5.51275 6.08361 4.06582
5.51275 6.08361 4.09367
5.51275 6.08361 4.12152
5.51275 6.08361 4.14937
5.51275 6.08361 4.17722
5.51275 6.08361 4.20506
5.51275 6.08361 4.24684
5.51275 6.08361 4.27468
5.51275 6.08361 4.30253
5.51275 6.08361 4.33038
5.51275 6.08361 4.35823
5.51275 6.08361 4.38608
5.51275 6.08361 4.41392
5.51275 6.08361 4.4557
5.51275 6.08361 4.48354
5.51275 6.08361 4.51139
5.51275 6.08361 4.53924
5.51275 6.08361 4.56709
5.51275 6.08361 4.59494
5.51275 6.08361 4.62279
5.51275 6.08361 4.65063
5.51275 6.08361 4.69241
5.51275 6.08361 4.72025
5.51275 6.08361 4.7481
5.51275 6.08361 4.77595
5.54498 6.08657 3.7038
5.54498 6.08657 3.73165
5.54498 6.08657 3.75949
5.54498 6.08657 3.80127
5.54498 6.08657 3.82911
5.54498 6.08657 3.85696
5.54498 6.08657 3.88481
5.54498 6.08657 3.91266
5.54498 6.08657 3.94051
5.54498 6.08657 3.96835
5.54498 6.08657 4.01013
5.54498 6.08657 4.03797
5.54498 6.08657 4.06582
5.54498 6.08657 4.09367
5.54498 6.08657 4.12152
5.54498 6.08657 4.14937
5.54498 6.08657 4.17722
5.54498 6.08657 4.20506
5.54498 6.08657 4.24684
5.54498 6.08657 4.27468
5.54498 6.08657 4.30253
5.54498 6.08657 4.33038
5.54498 6.08657 4.35823
5.54498 6.08657 4.38608
5.54498 6.08657 4.41392
5.54498 6.08657 4.4557
5.54498 6.08657 4.48354
5.54498 6.08657 4.51139
5.54498 6.08657 4.53924
5.54498 6.08657 4.56709
5.54498 6.08657 4.59494
5.54498 6.08657 4.62279
5.54498 6.08657 4.65063
5.54498 6.08657 4.69241
5.54498 6.08657 4.72025
5.54498 6.08657 4.7481
5.54498 6.08657 4.77595
5.54498 6.08657 4.8038
5.54498 6.08657 4.83165
5.54498 6.08657 3.67595
5.54498 6.08657 3.7038
5.54498 6.08657 3.73165
5.54498 6.08657 3.75949
5.54498 6.08657 3.80127
5.54498 6.08657 3.82911
5.54498 6.08657 3.85696
5.54498 6.08657 3.88481
5.54498 6.08657 3.91266
5.54498 6.08657 3.94051
5.54498 6.08657 3.96835
5.54498 6.08657 4.01013
5.54498 6.08657 4.03797
5.54498 6.08657 4.06582
5.54498 6.08657 4.09367
5.54498 6.08657 4.12152
5.54498 6.08657 4.14937
5.54498 6.08657 4.17722
5.54498 6.08657 4.20506
5.54498 6.08657 4.24684
5.54498 6.08657 4.27468
5.54498 6.08657 4.30253
5.54498 6.08657 4.33038
5.54498 6.08657 4.35823
5.54498 6.08657 4.38608
5.54498 6.08657 4.41392
5.54498 6.08657 4.4557
5.54498 6.08657 4.48354
5.54498 6.08657 4.51139
5.54498 6.08657 4.53924
5.54498 6.08657 4.56709
5.54498 6.08657 4.59494
5.54498 6.08657 4.62279
5.54498 6.08657 4.65063
5.54498 6.08657 4.69241
5.54498 6.08657 4.72025
5.54498 6.08657 4.7481
5.54498 6.08657 4.77595
5.54498 6.08657 4.8038
5.54498 6.08657 4.83165
5.5772 6.08954 3.67595
5.5772 6.08954 3.7038
5.5772 6.08954 3.73165
5.5772 6.08954 3.75949
5.5772 6.08954 3.80127
5.5772 6.08954 3.82911
5.5772 6.08954 3.85696
5.5772 6.08954 3.88481
5.5772 6.08954 3.91266
5.5772 6.08954 3.94051
5.5772 6.08954 3.96835
5.5772 6.08954 4.01013
5.5772 6.08954 4.03797
5.5772 6.08954 4.06582
5.5772 6.08954 4.09367
5.5772 6.08954 4.12152
5.5772 6.08954 4.14937
5.5772 6.08954 4.17722
5.5772 6.08954 4.20506
5.5772 6.08954 4.24684
5.5772 6.08954 4.27468
5.5772 6.08954 4.30253
5.5772 6.08954 4.33038
5.5772 6.08954 4.35823
5.5772 6.08954 4.38608
5.5772 6.08954 4.41392
5.5772 6.08954 4.4557
5.5772 6.08954 4.48354
5.5772 6.08954 4.51139
5.5772 6.08954 4.53924
5.5772 6.08954 4.56709
5.5772 6.08954 4.59494
5.5772 6.08954 4.62279
5.5772 6.08954 4.65063
5.5772 6.08954 4.69241
5.5772 6.08954 4.72025
5.5772 6.08954 4.7481
5.5772 6.08954 4.77595
5.6094 6.09247 3.7038
5.6094 6.09247 3.73165
5.6094 6.09247 3.75949
5.6094 6.09247 3.80127
5.6094 6.09247 3.82911
5.6094 6.09247 3.85696
5.6094 6.09247 3.88481
5.6094 6.09247 3.91266
5.6094 6.09247 3.94051
5.6094 6.09247 3.96835
5.6094 6.09247 4.01013
5.6094 6.09247 4.03797
5.6094 6.09247 4.06582
5.6094 6.09247 4.09367
5.6094 6.09247 4.12152
5.6094 6.09247 4.14937
5.6094 6.09247 4.17722
5.6094 6.09247 4.20506
5.6094 6.09247 4.24684
5.6094 6.09247 4.27468
5.6094 6.09247 4.30253
5.6094 6.09247 4.33038
5.6094 6.09247 4.35823
5.6094 6.09247 4.38608
5.6094 6.09247 4.41392
5.6094 6.09247 4.4557
5.6094 6.09247 4.48354
5.6094 6.09247 4.51139
5.6094 6.09247 4.53924
5.6094 6.09247 4.56709
5.6094 6.09247 4.59494
5.6094 6.09247 4.62279
5.6094 6.09247 4.65063
5.6094 6.09247 4.69241
5.6094 6.09247 4.72025
5.6094 6.09247 4.7481
5.6094 6.09247 3.7038
5.6094 6.09247 3.73165
5.6094 6.09247 3.75949
5.6094 6.09247 3.80127
5.6094 6.09247 3.82911
5.6094 6.09247 3.85696
5.6094 6.09247 3.88481
5.6094 6.09247 3.91266
5.6094 6.09247 3.94051
5.6094 6.09247 3.96835
5.6094 6.09247 4.01013
5.6094 6.09247 4.03797
5.6094 6.09247 4.06582
5.6094 6.09247 4.09367
5.6094 6.09247 4.12152
5.6094 6.09247 4.14937
5.6094 6.09247 4.17722
5.6094 6.09247 4.20506
5.6094 6.09247 4.24684
5.6094 6.09247 4.27468
5.6094 6.09247 4.30253
5.6094 6.09247 4.33038
5.6094 6.09247 4.35823
5.6094 6.09247 4.38608
5.6094 6.09247 4.41392
5.6094 6.09247 4.4557
5.6094 6.09247 4.48354
5.6094 6.09247 4.51139
5.6094 6.09247 4.53924
5.6094 6.09247 4.56709
5.6094 6.09247 4.59494
5.6094 6.09247 4.62279
5.6094 6.09247 4.65063
5.6094 6.09247 4.69241
5.6094 6.09247 4.72025
5.64157 6.09533 3.7038
5.64157 6.09533 3.73165
5.64157 6.09533 3.75949
5.64157 6.09533 3.80127
5.64157 6.09533 3.82911
5.64157 6.09533 3.85696
5.64157 6.09533 3.88481
5.64157 6.09533 3.91266
5.64157 6.09533 3.94051
5.64157 6.09533 3.96835
5.64157 6.09533 4.01013
5.64157 6.09533 4.03797
5.64157 6.09533 4.06582
5.64157 6.09533 4.09367
5.64157 6.09533 4.12152
5.64157 6.09533 4.14937
5.64157 6.09533 4.17722
5.64157 6.09533 4.20506
5.64157 6.09533 4.24684
5.64157 6.09533 4.27468
5.64157 6.09533 4.30253
5.64157 6.09533 4.33038
5.64157 6.09533 4.35823
5.64157 6.09533 4.38608
5.64157 6.09533 4.41392
5.64157 6.09533 4.4557
5.64157 6.09533 4.48354
5.64157 6.09533 4.51139
5.64157 6.09533 4.53924
5.64157 6.09533 4.56709
5.64157 6.09533 4.59494
5.64157 6.09533 4.62279
5.64157 6.09533 4.65063
5.64157 6.09533 4.69241
5.64157 6.09533 4.72025
5.67371 6.09807 3.7038
5.67371 6.09807 3.73165
5.67371 6.09807 3.75949
5.67371 6.09807 3.80127
5.67371 6.09807 3.82911
5.67371 6.09807 3.85696
5.67371 6.09807 3.88481
5.67371 6.09807 3.91266
5.67371 6.09807 3.94051
5.67371 6.09807 3.96835
5.67371 6.09807 4.01013
5.67371 6.09807 4.03797
5.67371 6.09807 4.06582
5.67371 6.09807 4.09367
5.67371 6.09807 4.12152
5.67371 6.09807 4.14937
5.67371 6.09807 4.17722
5.67371 6.09807 4.20506
5.67371 6.09807 4.24684
5.67371 6.09807 4.27468
5.67371 6.09807 4.30253
5.67371 6.09807 4.33038
5.67371 6.09807 4.35823
5.67371 6.09807 4.38608
5.67371 6.09807 4.41392
5.67371 6.09807 4.4557
5.67371 6.09807 4.48354
5.67371 6.09807 4.51139
5.67371 6.09807 4.53924
5.67371 6.09807 4.56709
5.67371 6.09807 4.59494
5.67371 6.09807 4.62279
5.67371 6.09807 4.65063
5.67371 6.09807 4.69241
5.67371 6.09807 3.7038
5.67371 6.09807 3.73165
5.67371 6.09807 3.75949
5.67371 6.09807 3.80127
5.67371 6.09807 3.82911
5.67371 6.09807 3.85696
5.67371 6.09807 3.88481
5.67371 6.09807 3.91266
5.67371 6.09807 3.94051
5.67371 6.09807 3.96835
5.67371 6.09807 4.01013
5.67371 6.09807 4.03797
5.67371 6.09807 4.06582
5.67371 6.09807 4.09367
5.67371 6.09807 4.12152
5.67371 6.09807 4.14937
5.67371 6.09807 4.17722
5.67371 6.09807 4.20506
5.67371 6.09807 4.24684
5.67371 6.09807 4.27468
5.67371 6.09807 4.30253
5.67371 6.09807 4.33038
5.67371 6.09807 4.35823
5.67371 6.09807 4.38608
5.67371 6.09807 4.41392
5.67371 6.09807 4.4557
5.67371 6.09807 4.48354
5.67371 6.09807 4.51139
5.67371 6.09807 4.53924
5.67371 6.09807 4.56709
5.67371 6.09807 4.59494
5.67371 6.09807 4.62279
5.67371 6.09807 4.65063
5.67371 6.09807 4.69241
5.70581 6.10067 3.7038
5.70581 6.10067 3.73165
5.70581 6.10067 3.75949
5.70581 6.10067 3.80127
5.70581 6.10067 3.82911
5.70581 6.10067 3.85696
5.70581 6.10067 3.88481
5.70581 6.10067 3.91266
5.70581 6.10067 3.94051
5.70581 6.10067 3.96835
5.70581 6.10067 4.01013
5.70581 6.10067 4.03797
5.70581 6.10067 4.06582
5.70581 6.10067 4.09367
5.70581 6.10067 4.12152
5.70581 6.10067 4.14937
5.70581 6.10067 4.17722
5.70581 6.10067 4.20506
5.70581 6.10067 4.24684
5.70581 6.10067 4.27468
5.70581 6.10067 4.30253
5.70581 6.10067 4.33038
5.70581 6.10067 4.35823
5.70581 6.10067 4.38608
5.70581 6.10067 4.41392
5.70581 6.10067 4.4557
5.70581 6.10067 4.48354
5.70581 6.10067 4.51139
5.70581 6.10067 4.53924
5.70581 6.10067 4.56709
5.70581 6.10067 4.59494
5.70581 6.10067 4.62279
5.70581 6.10067 4.65063
5.70581 6.10067 4.69241
5.73789 6.10311 3.67595
5.73789 6.10311 3.7038
5.73789 6.10311 3.73165
5.73789 6.10311 3.75949
5.73789 6.10311 3.80127
5.73789 6.10311 3.82911
5.73789 6.10311 3.85696
5.73789 6.10311 3.88481
5.73789 6.10311 3.91266
5.73789 6.10311 3.94051
5.73789 6.10311 3.96835
5.73789 6.10311 4.01013
5.73789 6.10311 4.03797
5.73789 6.10311 4.06582
5.73789 6.10311 4.09367
5.73789 6.10311 4.12152
5.73789 6.10311 4.14937
5.73789 6.10311 4.17722
5.73789 6.10311 4.20506
5.73789 6.10311 4.24684
5.73789 6.10311 4.27468
5.73789 6.10311 4.30253
5.73789 6.10311 4.33038
5.73789 6.10311 4.35823
5.73789 6.10311 4.38608
5.73789 6.10311 4.41392
5.73789 6.10311 4.4557
5.73789 6.10311 4.48354
5.73789 6.10311 4.51139
5.73789 6.10311 4.53924
5.73789 6.10311 4.56709
5.73789 6.10311 4.59494
5.73789 6.10311 4.62279
5.73789 6.10311 3.7038
5.73789 6.10311 3.73165
5.73789 6.10311 3.75949
5.73789 6.10311 3.80127
5.73789 6.10311 3.82911
5.73789 6.10311 3.85696
5.73789 6.10311 3.88481
5.73789 6.10311 3.91266
5.73789 6.10311 3.94051
5.73789 6.10311 3.96835
5.73789 6.10311 4.01013
5.73789 6.10311 4.03797
5.73789 6.10311 4.06582
5.73789 6.10311 4.09367
5.73789 6.10311 4.12152
5.73789 6.10311 4.14937
5.73789 6.10311 4.17722
5.73789 6.10311 4.20506
5.73789 6.10311 4.24684
5.73789 6.10311 4.27468
5.73789 6.10311 4.30253
5.73789 6.10311 4.33038
5.73789 6.10311 4.35823
5.73789 6.10311 4.38608
5.73789 6.10311 4.41392
5.73789 6.10311 4.4557
5.73789 6.10311 4.48354
5.73789 6.10311 4.51139
5.73789 6.10311 4.53924
5.73789 6.10311 4.56709
5.73789 6.10311 4.59494
5.73789 6.10311 4.62279
5.76995 6.10543 3.7038
5.76995 6.10543 3.73165
5.76995 6.10543 3.75949
5.76995 6.10543 3.80127
5.76995 6.10543 3.82911
5.76995 6.10543 3.85696
5.76995 6.10543 3.88481
5.76995 6.10543 3.91266
5.76995 6.10543 3.94051
5.76995 6.10543 3.96835
5.76995 6.10543 4.01013
5.76995 6.10543 4.03797
5.76995 6.10543 4.06582
5.76995 6.10543 4.09367
5.76995 6.10543 4.12152
5.76995 6.10543 4.14937
5.76995 6.10543 4.17722
5.76995 6.10543 4.20506
5.76995 6.10543 4.24684
5.76995 6.10543 4.27468
5.76995 6.10543 4.30253
5.76995 6.10543 4.33038
5.76995 6.10543 4.35823
5.76995 6.10543 4.38608
5.76995 6.10543 4.41392
5.76995 6.10543 4.4557
5.76995 6.10543 4.48354
5.76995 6.10543 4.51139
5.76995 6.10543 4.56709
5.802 6.1077 3.7038
5.802 6.1077 3.73165
5.802 6.1077 3.75949
5.802 6.1077 3.80127
5.802 6.1077 3.82911
5.802 6.1077 3.85696
5.802 6.1077 3.88481
5.802 6.1077 3.91266
5.802 6.1077 3.94051
5.802 6.1077 3.96835
5.802 6.1077 4.01013
5.802 6.1077 4.03797
5.802 6.1077 4.06582
5.802 6.1077 4.09367
5.802 6.1077 4.12152
5.802 6.1077 4.14937
5.802 6.1077 4.17722
5.802 6.1077 4.20506
5.802 6.1077 4.24684
5.802 6.1077 4.27468
5.802 6.1077 4.30253
5.802 6.1077 4.33038
5.802 6.1077 4.35823
5.802 6.1077 4.38608
5.802 6.1077 4.41392
5.83406 6.10994 3.73165
5.83406 6.10994 3.75949
5.83406 6.10994 3.80127
5.83406 6.10994 3.82911
5.83406 6.10994 3.85696
5.83406 6.10994 3.88481
5.83406 6.10994 3.91266
5.83406 6.10994 3.94051
5.83406 6.10994 3.96835
5.83406 6.10994 4.01013
5.83406 6.10994 4.03797
5.83406 6.10994 4.06582
5.83406 6.10994 4.09367
5.83406 6.10994 4.12152
5.83406 6.10994 4.14937
5.83406 6.10994 4.17722
5.83406 6.10994 4.20506
5.83406 6.10994 4.24684
5.83406 6.10994 4.27468
5.83406 6.10994 4.30253
5.83406 6.10994 4.33038
5.83406 6.10994 4.35823
5.83406 6.10994 4.38608
5.83406 6.10994 3.73165
5.83406 6.10994 3.75949
5.83406 6.10994 3.80127
5.83406 6.10994 3.82911
5.83406 6.10994 3.85696
5.83406 6.10994 3.88481
5.83406 6.10994 3.91266
5.83406 6.10994 3.94051
5.83406 6.10994 3.96835
5.83406 6.10994 4.01013
5.83406 6.10994 4.03797
5.83406 6.10994 4.06582
5.83406 6.10994 4.09367
5.83406 6.10994 4.12152
5.83406 6.10994 4.14937
5.83406 6.10994 4.17722
5.83406 6.10994 4.20506
5.83406 6.10994 4.24684
5.83406 6.10994 4.27468
5.83406 6.10994 4.30253
5.83406 6.10994 4.33038
5.83406 6.10994 4.38608
5.86615 6.11219 3.73165
5.86615 6.11219 3.75949
5.86615 6.11219 3.80127
5.86615 6.11219 3.82911
5.86615 6.11219 3.85696
5.86615 6.11219 3.88481
5.86615 6.11219 3.91266
5.86615 6.11219 3.94051
5.86615 6.11219 3.96835
5.86615 6.11219 4.01013
5.86615 6.11219 4.03797
5.86615 6.11219 4.06582
5.86615 6.11219 4.09367
5.86615 6.11219 4.12152
5.86615 6.11219 4.14937
5.86615 6.11219 4.17722
5.86615 6.11219 4.20506
5.86615 6.11219 4.24684
5.86615 6.11219 4.27468
5.86615 6.11219 4.33038
5.86615 6.11219 4.35823
5.89828 6.11447 3.75949
5.89828 6.11447 3.80127
5.89828 6.11447 3.82911
5.89828 6.11447 3.85696
5.89828 6.11447 3.88481
5.89828 6.11447 3.91266
5.89828 6.11447 3.94051
5.89828 6.11447 3.96835
5.89828 6.11447 4.01013
5.89828 6.11447 4.03797
5.89828 6.11447 4.06582
5.89828 6.11447 4.09367
5.89828 6.11447 4.12152
5.89828 6.11447 4.14937
5.89828 6.11447 4.17722
5.89828 6.11447 4.20506
5.89828 6.11447 4.24684
5.89828 6.11447 4.27468
5.89828 6.11447 4.30253
5.89828 6.11447 4.33038
5.89828 6.11447 4.35823
5.89828 6.11447 3.80127
5.89828 6.11447 3.82911
5.89828 6.11447 3.85696
5.89828 6.11447 3.88481
5.89828 6.11447 3.91266
5.89828 6.11447 3.94051
5.89828 6.11447 3.96835
5.89828 6.11447 4.01013
5.89828 6.11447 4.03797
5.89828 6.11447 4.06582
5.89828 6.11447 4.09367
5.89828 6.11447 4.12152
5.89828 6.11447 4.14937
5.89828 6.11447 4.17722
5.89828 6.11447 4.20506
5.89828 6.11447 4.24684
5.89828 6.11447 4.27468
5.89828 6.11447 4.30253
5.93046 6.11678 3.82911
5.93046 6.11678 3.85696
5.93046 6.11678 3.88481
5.93046 6.11678 3.91266
5.93046 6.11678 3.94051
5.93046 6.11678 3.96835
5.93046 6.11678 4.01013
5.93046 6.11678 4.03797
5.93046 6.11678 4.06582
5.93046 6.11678 4.09367
5.93046 6.11678 4.12152
5.93046 6.11678 4.14937
5.93046 6.11678 4.17722
5.93046 6.11678 4.20506
5.93046 6.11678 4.24684
5.93046 6.11678 4.27468
5.9627 6.11915 3.82911
5.9627 6.11915 3.85696
5.9627 6.11915 3.88481
5.9627 6.11915 3.91266
5.9627 6.11915 3.94051
5.9627 6.11915 3.96835
5.9627 6.11915 4.01013
5.9627 6.11915 4.03797
5.9627 6.11915 4.06582
5.9627 6.11915 4.09367
5.9627 6.11915 4.12152
5.9627 6.11915 4.14937
5.9627 6.11915 4.17722
5.9627 6.11915 4.20506
5.9627 6.11915 3.85696
5.9627 6.11915 3.88481
5.9627 6.11915 3.91266
5.9627 6.11915 3.94051
5.9627 6.11915 3.96835
5.9627 6.11915 4.01013
5.9627 6.11915 4.03797
5.9627 6.11915 4.06582
5.9627 6.11915 4.09367
5.9627 6.11915 4.12152
5.9627 6.11915 4.14937
5.99502 6.12155 3.85696
5.99502 6.12155 3.88481
5.99502 6.12155 3.91266
5.99502 6.12155 3.94051
6.02743 6.12399 3.88481
6.02743 6.12399 3.96835
6.02743 6.12399 4.03797
6.02743 6.12399 4.06582
6.02743 6.12399 4.03797
6.02743 6.12399 4.06582
6.05994 6.12645 3.96835
6.05994 6.12645 4.01013
6.05994 6.12645 4.03797
5.03043 6.07696 4.09367
5.03043 6.07696 4.17722
5.03043 6.07696 4.20506
5.03043 6.07696 4.33038
5.03043 6.07696 4.06582
5.03043 6.07696 4.09367
5.03043 6.07696 4.14937
5.03043 6.07696 4.17722
5.03043 6.07696 4.20506
5.03043 6.07696 4.24684
5.03043 6.07696 4.27468
5.03043 6.07696 4.30253
5.03043 6.07696 4.33038
5.06177 6.07935 4.06582
5.06177 6.07935 4.09367
5.06177 6.07935 4.12152
5.06177 6.07935 4.14937
5.06177 6.07935 4.17722
5.06177 6.07935 4.20506
5.06177 6.07935 4.24684
5.06177 6.07935 4.27468
5.06177 6.07935 4.30253
5.06177 6.07935 4.33038
5.06177 6.07935 4.38608
5.09325 6.08176 4.03797
5.09325 6.08176 4.06582
5.09325 6.08176 4.09367
5.09325 6.08176 4.12152
5.09325 6.08176 4.14937
5.09325 6.08176 4.17722
5.09325 6.08176 4.20506
5.09325 6.08176 4.24684
5.09325 6.08176 4.27468
5.09325 6.08176 4.30253
5.09325 6.08176 4.33038
5.09325 6.08176 4.35823
5.09325 6.08176 4.38608
5.09325 6.08176 4.41392
5.09325 6.08176 4.03797
5.09325 6.08176 4.06582
5.09325 6.08176 4.09367
5.09325 6.08176 4.12152
5.09325 6.08176 4.14937
5.09325 6.08176 4.17722
5.09325 6.08176 4.20506
5.09325 6.08176 4.24684
5.09325 6.08176 4.27468
5.09325 6.08176 4.30253
5.09325 6.08176 4.33038
5.09325 6.08176 4.35823
5.09325 6.08176 4.38608
5.09325 6.08176 4.41392
5.09325 6.08176 4.4557
5.12485 6.0842 4.03797
5.12485 6.0842 4.06582
5.12485 6.0842 4.09367
5.12485 6.0842 4.12152
5.12485 6.0842 4.14937
5.12485 6.0842 4.17722
5.12485 6.0842 4.20506
5.12485 6.0842 4.24684
5.12485 6.0842 4.27468
5.12485 6.0842 4.30253
5.12485 6.0842 4.33038
5.12485 6.0842 4.35823
5.12485 6.0842 4.38608
5.12485 6.0842 4.41392
5.12485 6.0842 4.4557
5.15655 6.08666 4.03797
5.15655 6.08666 4.06582
5.15655 6.08666 4.09367
5.15655 6.08666 4.12152
5.15655 6.08666 4.14937
5.15655 6.08666 4.17722
5.15655 6.08666 4.20506
5.15655 6.08666 4.24684
5.15655 6.08666 4.27468
5.15655 6.08666 4.30253
5.15655 6.08666 4.33038
5.15655 6.08666 4.35823
5.15655 6.08666 4.38608
5.15655 6.08666 4.41392
5.15655 6.08666 4.4557
5.15655 6.08666 4.48354
5.15655 6.08666 4.56709
5.15655 6.08666 4.01013
5.15655 6.08666 4.03797
5.15655 6.08666 4.06582
5.15655 6.08666 4.09367
5.15655 6.08666 4.12152
5.15655 6.08666 4.14937
5.15655 6.08666 4.17722
5.15655 6.08666 4.20506
5.15655 6.08666 4.24684
5.15655 6.08666 4.27468
5.15655 6.08666 4.30253
5.15655 6.08666 4.33038
5.15655 6.08666 4.35823
5.15655 6.08666 4.38608
5.15655 6.08666 4.41392
5.15655 6.08666 4.4557
5.15655 6.08666 4.48354
5.15655 6.08666 4.51139
5.15655 6.08666 4.53924
5.15655 6.08666 4.56709
5.15655 6.08666 4.59494
5.15655 6.08666 4.62279
5.18833 6.08916 4.03797
5.18833 6.08916 4.06582
5.18833 6.08916 4.09367
5.18833 6.08916 4.12152
5.18833 6.08916 4.14937
5.18833 6.08916 4.17722
5.18833 6.08916 4.20506
5.18833 6.08916 4.24684
5.18833 6.08916 4.27468
5.18833 6.08916 4.30253
5.18833 6.08916 4.33038
5.18833 6.08916 4.35823
5.18833 6.08916 4.38608
5.18833 6.08916 4.41392
5.18833 6.08916 4.4557
5.18833 6.08916 4.48354
5.18833 6.08916 4.51139
5.18833 6.08916 4.53924
5.18833 6.08916 4.56709
5.18833 6.08916 4.59494
5.18833 6.08916 4.62279
5.22022 6.09168 3.88481
5.22022 6.09168 3.91266
5.22022 6.09168 4.03797
5.22022 6.09168 4.06582
5.22022 6.09168 4.09367
5.22022 6.09168 4.12152
5.22022 6.09168 4.14937
5.22022 6.09168 4.17722
5.22022 6.09168 4.20506
5.22022 6.09168 4.24684
5.22022 6.09168 4.27468
5.22022 6.09168 4.30253
5.22022 6.09168 4.33038
5.22022 6.09168 4.35823
5.22022 6.09168 4.38608
5.22022 6.09168 4.41392
5.22022 6.09168 4.4557
5.22022 6.09168 4.48354
5.22022 6.09168 4.51139
5.22022 6.09168 4.53924
5.22022 6.09168 4.56709
5.22022 6.09168 4.59494
5.22022 6.09168 4.62279
5.22022 6.09168 3.88481
5.22022 6.09168 4.01013
5.22022 6.09168 4.03797
5.22022 6.09168 4.06582
5.22022 6.09168 4.09367
5.22022 6.09168 4.12152
5.22022 6.09168 4.14937
5.22022 6.09168 4.17722
5.22022 6.09168 4.20506
5.22022 6.09168 4.24684
5.22022 6.09168 4.27468
5.22022 6.09168 4.30253
5.22022 6.09168 4.33038
5.22022 6.09168 4.35823
5.22022 6.09168 4.38608
5.22022 6.09168 4.41392
5.22022 6.09168 4.4557
5.22022 6.09168 4.48354
5.22022 6.09168 4.51139
5.22022 6.09168 4.53924
5.22022 6.09168 4.56709
5.25217 6.09424 3.96835
5.25217 6.09424 4.01013
5.25217 6.09424 4.03797
5.25217 6.09424 4.06582
5.25217 6.09424 4.09367
5.25217 6.09424 4.12152
5.25217 6.09424 4.14937
5.25217 6.09424 4.17722
5.25217 6.09424 4.20506
5.25217 6.09424 4.24684
5.25217 6.09424 4.27468
5.25217 6.09424 4.30253
5.25217 6.09424 4.33038
5.25217 6.09424 4.35823
5.25217 6.09424 4.38608
5.25217 6.09424 4.41392
5.25217 6.09424 4.4557
5.25217 6.09424 4.48354
5.25217 6.09424 4.59494
5.25217 6.09424 4.62279
5.28419 6.09685 3.91266
5.28419 6.09685 3.94051
5.28419 6.09685 3.96835
5.28419 6.09685 4.01013
5.28419 6.09685 4.03797
5.28419 6.09685 4.06582
5.28419 6.09685 4.09367
5.28419 6.09685 4.12152
5.28419 6.09685 4.14937
5.28419 6.09685 4.17722
5.28419 6.09685 4.20506
5.28419 6.09685 4.24684
5.28419 6.09685 4.27468
5.28419 6.09685 4.30253
5.28419 6.09685 4.33038
5.28419 6.09685 4.35823
5.28419 6.09685 4.38608
5.28419 6.09685 4.41392
5.28419 6.09685 4.4557
5.28419 6.09685 4.48354
5.28419 6.09685 4.56709
5.28419 6.09685 4.59494
5.31626 6.0995 3.88481
5.31626 6.0995 3.91266
5.31626 6.0995 3.94051
5.31626 6.0995 3.96835
5.31626 6.0995 4.01013
5.31626 6.0995 4.03797
5.31626 6.0995 4.06582
5.31626 6.0995 4.09367
5.31626 6.0995 4.12152
5.31626 6.0995 4.14937
5.31626 6.0995 4.17722
5.31626 6.0995 4.20506
5.31626 6.0995 4.24684
5.31626 6.0995 4.27468
5.31626 6.0995 4.30253
5.31626 6.0995 4.33038
5.31626 6.0995 4.35823
5.31626 6.0995 4.38608
5.31626 6.0995 4.41392
5.31626 6.0995 4.4557
5.31626 6.0995 4.56709
5.31626 6.0995 4.59494
5.31626 6.0995 3.85696
5.31626 6.0995 3.88481
